VERSION .7
FIELDS x y z
SIZE 4 4 4
TYPE F F F
COUNT 1 1 1
WIDTH 397
HEIGHT 1
VIEWPOINT 0 0 0 1 0 0 0
POINTS 397
DATA ascii
-8.295701e-02 1.103230e-01 -1.402585e-01
-8.324727e-02 1.029455e-01 -1.496816e-01
-8.196278e-02 9.728635e-02 -1.507270e-01
-8.503398e-02 1.017900e-01 -1.528249e-01
-7.972551e-02 1.063142e-01 -1.435308e-01
-7.739508e-02 1.000090e-01 -1.440282e-01
-2.183736e-02 9.561045e-02 -1.203279e-01
-7.587505e-02 1.132098e-01 -1.315267e-01
-6.586048e-02 1.165015e-01 -1.197318e-01
-6.919549e-02 1.156515e-01 -1.247610e-01
-7.080666e-02 1.122691e-01 -1.337057e-01
-6.503665e-02 1.068525e-01 -1.338486e-01
-6.447352e-02 1.143188e-01 -1.294359e-01
-6.061036e-02 1.091328e-01 -1.299909e-01
-7.883830e-02 1.116654e-01 -1.360894e-01
-7.534429e-02 1.101566e-01 -1.376207e-01
-6.066811e-02 1.187923e-01 -1.162467e-01
-6.371097e-02 1.179032e-01 -1.208136e-01
-5.574146e-02 1.190094e-01 -1.183242e-01
-5.221985e-02 1.132607e-01 -1.214808e-01
-5.751411e-02 1.172544e-01 -1.231475e-01
-5.528680e-02 1.119074e-01 -1.249791e-01
-5.006513e-02 1.200360e-01 -1.152806e-01
-4.875920e-02 1.150905e-01 -1.173595e-01
-2.296190e-02 1.025942e-01 -1.280910e-01
-3.027007e-02 1.126839e-01 -1.294747e-01
-2.636325e-02 1.083627e-01 -1.325565e-01
-2.360342e-02 9.470552e-02 -1.435849e-01
-2.136250e-02 8.830561e-02 -1.439987e-01
-1.932147e-02 9.554586e-02 -1.275992e-01
-1.602337e-02 8.967872e-02 -1.324588e-01
-2.276726e-02 9.851321e-02 -1.361067e-01
-1.914380e-02 8.993282e-02 -1.380058e-01
-2.595379e-02 1.084061e-01 -1.384361e-01
-2.362557e-02 9.537648e-02 -1.445169e-01
-2.301990e-02 9.101604e-02 -1.516189e-01
-2.258233e-02 9.407752e-02 -1.591198e-01
-2.254374e-02 1.026960e-01 -1.445102e-01
-2.172963e-02 9.860865e-02 -1.508640e-01
-2.305455e-02 1.008111e-01 -1.531604e-01
-2.206829e-02 9.968648e-02 -1.539867e-01
-2.009871e-02 7.581424e-02 -1.524819e-01
-2.311175e-02 7.982458e-02 -1.584293e-01
-2.488696e-02 8.453835e-02 -1.638568e-01
-1.603727e-02 8.081340e-02 -1.394899e-01
-1.826847e-02 8.076346e-02 -1.465190e-01
-1.533673e-02 8.319792e-02 -1.378412e-01
-1.551355e-02 8.394400e-02 -1.396481e-01
-2.216541e-02 8.365291e-02 -1.536927e-01
-2.365697e-02 8.846535e-02 -1.613820e-01
-4.031859e-02 7.084080e-02 -6.863745e-03
-3.902036e-02 7.083497e-02 -1.110030e-02
-3.460980e-02 6.770425e-02 -1.726674e-02
-3.610917e-02 7.045710e-02 -5.502311e-03
-3.387782e-02 7.083221e-02 -7.565855e-03
-3.648015e-02 7.065434e-02 -9.690964e-03
-3.275411e-02 6.909097e-02 -1.327464e-02
-3.865100e-02 9.649691e-02 -2.787634e-02
-3.471378e-02 6.612203e-02 -2.572575e-02
-2.984920e-02 8.521386e-02 -2.351571e-02
-2.621648e-02 7.983605e-02 -2.379814e-02
-3.365747e-02 9.003896e-02 -2.493007e-02
-1.936896e-02 8.160621e-02 2.125281e-03
-1.476525e-02 8.408262e-02 1.164424e-03
-1.258715e-02 8.451007e-02 -5.007146e-03
-3.550273e-02 9.803382e-02 -2.769851e-02
-2.885276e-02 8.543692e-02 -2.346935e-02
-2.288555e-02 8.238688e-02 -2.394611e-02
-2.765697e-02 9.357911e-02 -2.492494e-02
-2.099446e-02 8.746411e-02 -2.425949e-02
-2.110407e-02 9.862210e-02 -2.567196e-02
-1.368695e-02 9.385918e-02 -2.626454e-02
-2.983445e-02 6.676191e-02 -2.131236e-02
-2.736178e-02 6.651682e-02 -1.990188e-02
-3.031308e-02 6.772432e-02 -2.484479e-02
-2.624200e-02 6.906975e-02 -2.450120e-02
-1.286720e-02 7.642041e-02 -1.625288e-02
-5.749406e-03 7.878420e-02 -1.298751e-02
2.131704e-03 7.413708e-02 -1.563114e-02
6.716393e-03 6.894390e-02 -1.906871e-02
-1.544064e-02 7.887417e-02 -2.351172e-02
-1.418322e-02 8.371256e-02 -2.518062e-02
-6.575237e-03 7.984833e-02 -2.093257e-02
1.460925e-03 7.740328e-02 -2.063909e-02
-6.374672e-03 8.773610e-02 -2.796879e-02
-4.318604e-04 8.391428e-02 -2.734365e-02
7.763063e-03 7.004352e-02 -2.589834e-02
1.229392e-02 6.700669e-02 -2.737436e-02
9.852740e-03 7.425278e-02 -3.436868e-02
1.250645e-02 7.114538e-02 -3.377940e-02
-4.871064e-02 9.445922e-02 -3.373197e-02
-4.097674e-02 1.015741e-01 -3.133283e-02
-4.415582e-02 1.127096e-01 -4.016013e-02
-4.261508e-02 1.077089e-01 -3.591284e-02
-4.514822e-02 1.165385e-01 -4.868070e-02
-4.422654e-02 1.183634e-01 -5.501581e-02
-4.231825e-02 1.197292e-01 -5.757216e-02
-3.374850e-02 1.055288e-01 -3.026027e-02
-4.056333e-02 1.140041e-01 -3.944991e-02
-3.530224e-02 1.132848e-01 -3.686695e-02
-2.734404e-02 1.090388e-01 -3.074990e-02
-2.664106e-02 1.145472e-01 -3.649920e-02
-2.852743e-02 1.019061e-01 -2.693093e-02
-2.002247e-02 1.055215e-01 -2.922138e-02
-1.302371e-02 1.005064e-01 -2.851890e-02
-2.003379e-02 1.134619e-01 -3.582782e-02
-4.032730e-02 1.178423e-01 -4.557857e-02
-3.480760e-02 1.190462e-01 -4.555123e-02
-4.133631e-02 1.193105e-01 -5.241903e-02
-3.511845e-02 1.212155e-01 -5.418547e-02
-2.716400e-02 1.189437e-01 -4.513954e-02
-2.730514e-02 1.215186e-01 -5.322823e-02
-1.989786e-02 1.185120e-01 -4.641106e-02
-1.844061e-02 1.200510e-01 -5.492827e-02
-1.147876e-02 1.155666e-01 -6.052857e-02
-4.572359e-03 1.088703e-01 -6.447321e-02
2.222529e-03 1.015187e-01 -6.784467e-02
8.049847e-03 9.586673e-02 -7.118014e-02
1.434032e-02 9.199656e-02 -7.506657e-02
-6.861255e-03 8.448235e-02 1.977459e-03
-7.048839e-03 8.524736e-02 -3.491300e-03
4.477614e-04 7.977909e-02 -7.162612e-04
5.091738e-03 7.177259e-02 -5.170130e-03
-1.569913e-03 8.090557e-02 -6.354499e-03
3.613133e-03 7.334184e-02 -1.060309e-02
1.246880e-02 6.989039e-02 -6.600418e-03
1.304198e-02 6.976072e-02 -1.477366e-02
2.082047e-02 6.558939e-02 -2.040590e-02
1.919552e-02 6.930116e-02 -6.832502e-03
2.582939e-02 6.461467e-02 -9.425333e-03
1.922123e-02 6.980257e-02 -1.093903e-02
2.494569e-02 6.637302e-02 -1.433775e-02
4.068121e-03 7.863901e-02 -2.440105e-02
-1.379176e-03 8.959482e-02 -3.154522e-02
4.241817e-03 8.342130e-02 -3.030880e-02
6.840578e-03 7.646536e-02 -2.698525e-02
1.993809e-02 6.772913e-02 -2.689369e-02
8.723816e-03 7.880545e-02 -3.376776e-02
1.886243e-02 7.374557e-02 -3.481765e-02
2.680598e-02 6.954096e-02 -2.849733e-02
2.722020e-02 7.558074e-02 -3.523424e-02
-1.407551e-02 1.075608e-01 -3.227493e-02
-8.475083e-03 1.022330e-01 -3.211378e-02
-1.450623e-02 1.127205e-01 -3.766412e-02
-6.963573e-03 1.083970e-01 -3.923831e-02
-1.913155e-02 1.321638e-01 -5.389318e-02
-1.459450e-02 1.165219e-01 -4.567814e-02
-7.641545e-03 1.125032e-01 -4.852018e-02
-1.401373e-02 1.264764e-01 -5.565754e-02
-8.877446e-03 1.144001e-01 -5.560763e-02
-1.513193e-03 9.612643e-02 -3.470049e-02
4.773180e-03 8.928298e-02 -3.823304e-02
6.745136e-05 1.020575e-01 -4.278956e-02
5.500213e-03 9.459404e-02 -4.697251e-02
1.110519e-02 8.260745e-02 -4.203895e-02
1.897973e-02 8.031396e-02 -4.090829e-02
1.276113e-02 8.861452e-02 -5.027699e-02
2.029679e-02 8.879006e-02 -5.305026e-02
2.745919e-02 8.266082e-02 -4.219108e-02
2.053529e-02 8.702359e-02 -4.654166e-02
2.758999e-02 8.773000e-02 -5.015453e-02
-9.000663e-04 1.062278e-01 -5.206498e-02
4.932231e-03 9.896013e-02 -5.598228e-02
-2.908256e-03 1.083085e-01 -5.902442e-02
2.948492e-03 1.024590e-01 -6.227446e-02
1.268331e-02 9.325985e-02 -5.912690e-02
1.988609e-02 8.822422e-02 -6.261397e-02
1.133861e-02 9.453401e-02 -6.635346e-02
1.834888e-02 8.981037e-02 -7.142258e-02
2.705505e-02 8.847104e-02 -5.801275e-02
4.430634e-02 2.652806e-02 -2.914840e-02
4.554906e-02 3.102292e-02 -3.686623e-02
4.844135e-02 -2.727844e-04 -5.101261e-02
5.190066e-02 -1.649672e-03 -5.645449e-02
5.399038e-02 -5.722675e-04 -6.560042e-02
4.648149e-02 1.543481e-02 -7.250765e-02
5.322514e-02 3.922878e-03 -7.471742e-02
4.058359e-02 1.472036e-02 -3.625771e-02
4.357643e-02 1.002845e-02 -3.997283e-02
4.365043e-02 1.681721e-02 -3.957941e-02
4.719953e-02 1.214538e-02 -4.238112e-02
4.298949e-02 2.245641e-02 -3.311706e-02
4.607716e-02 2.515647e-02 -3.925695e-02
4.930725e-02 1.664098e-02 -4.539531e-02
5.196536e-02 6.153828e-03 -5.004569e-02
5.338893e-02 1.136005e-03 -5.599983e-02
5.378920e-02 1.270727e-02 -4.929176e-02
5.039417e-02 1.938013e-02 -5.818973e-02
4.979983e-02 2.101739e-02 -6.358132e-02
4.974326e-02 2.870726e-02 -4.622026e-02
5.066404e-02 2.153203e-02 -5.199750e-02
5.249395e-02 3.271639e-02 -5.517201e-02
5.230270e-02 2.907890e-02 -5.982957e-02
5.644884e-02 1.066090e-02 -5.811259e-02
5.654941e-02 5.285401e-03 -6.176089e-02
5.245723e-02 1.599674e-02 -6.704047e-02
5.608870e-02 9.215267e-03 -6.997281e-02
5.509865e-02 1.513034e-02 -5.621886e-02
3.817894e-02 6.924134e-02 -8.756852e-02
4.336173e-02 6.286924e-02 -8.990517e-02
3.858606e-02 1.705737e-02 -8.868277e-02
4.628782e-02 1.377682e-02 -7.606545e-02
5.091105e-02 9.327258e-03 -7.718467e-02
4.287425e-02 2.150860e-02 -8.744198e-02
4.218255e-02 3.061923e-02 -9.689483e-02
4.072272e-02 3.558858e-02 -1.010338e-01
3.710242e-02 2.270391e-02 -9.757802e-02
4.170794e-02 2.658602e-02 -9.471862e-02
5.040610e-02 2.584805e-02 -7.274591e-02
5.019219e-02 3.082902e-02 -8.198225e-02
5.269792e-02 3.283244e-02 -6.871170e-02
5.278247e-02 3.746174e-02 -7.762205e-02
4.854863e-02 2.103962e-02 -7.523327e-02
5.185090e-02 1.145996e-02 -7.551446e-02
4.847654e-02 2.686372e-02 -8.331776e-02
4.826928e-02 3.553899e-02 -9.071118e-02
4.525151e-02 4.927970e-02 -9.909042e-02
4.584685e-02 4.281756e-02 -9.762899e-02
5.101014e-02 4.951526e-02 -8.550215e-02
5.130850e-02 4.300763e-02 -8.587566e-02
4.722879e-02 5.427969e-02 -9.186319e-02
4.802616e-02 4.634030e-02 -9.342226e-02
4.695244e-02 2.985284e-02 -9.032705e-02
3.125449e-02 5.373691e-02 -1.509056e-02
3.455783e-02 4.775831e-02 -1.838425e-02
2.911390e-02 5.846657e-02 -2.082272e-02
3.469219e-02 5.056239e-02 -2.285199e-02
2.934196e-02 5.785498e-02 -1.306382e-02
3.025613e-02 6.024395e-02 -1.972473e-02
3.811332e-02 5.508248e-02 -2.598605e-02
3.973427e-02 4.001880e-02 -2.249474e-02
4.439001e-02 3.251123e-02 -2.681870e-02
4.121177e-02 4.313668e-02 -2.751736e-02
4.491366e-02 3.574308e-02 -3.295101e-02
4.324370e-02 4.945344e-02 -2.913062e-02
2.720651e-02 6.438395e-02 -2.398480e-02
3.213328e-02 6.586693e-02 -2.833920e-02
4.002414e-02 6.007976e-02 -3.091399e-02
3.400169e-02 7.191989e-02 -3.620157e-02
4.176375e-02 6.612712e-02 -3.910577e-02
4.626823e-02 4.575155e-02 -3.424970e-02
4.876748e-02 4.283002e-02 -4.027550e-02
5.050327e-02 4.633754e-02 -4.907709e-02
4.557277e-02 5.282566e-02 -3.518643e-02
4.762122e-02 4.846104e-02 -3.985766e-02
4.718778e-02 5.889733e-02 -4.325097e-02
4.986284e-02 5.208421e-02 -4.757477e-02
4.641167e-02 3.085864e-02 -3.655364e-02
5.026695e-02 3.503108e-02 -4.604497e-02
5.156750e-02 3.868704e-02 -5.429132e-02
5.279011e-02 3.399291e-02 -5.768602e-02
3.555706e-02 7.801823e-02 -4.432644e-02
4.273799e-02 7.190518e-02 -4.749785e-02
3.561608e-02 8.280283e-02 -5.288717e-02
4.224631e-02 7.607691e-02 -5.660957e-02
5.280968e-02 5.055937e-02 -5.786906e-02
5.129437e-02 5.749179e-02 -6.828084e-02
4.775353e-02 6.396704e-02 -5.181181e-02
5.172643e-02 5.593429e-02 -5.631998e-02
4.763498e-02 6.866294e-02 -6.070972e-02
5.044508e-02 6.066930e-02 -6.393390e-02
2.712121e-02 8.319818e-02 -6.799256e-02
3.481798e-02 7.687364e-02 -7.210962e-02
2.545230e-02 8.440619e-02 -7.511831e-02
3.243159e-02 7.810347e-02 -7.854706e-02
3.369531e-02 8.472269e-02 -6.144882e-02
4.000608e-02 7.881182e-02 -6.523997e-02
4.279350e-02 7.019352e-02 -7.411441e-02
4.871746e-02 6.220331e-02 -7.602325e-02
3.860078e-02 7.108455e-02 -8.168564e-02
4.500684e-02 6.449880e-02 -8.412424e-02
4.512898e-02 7.118188e-02 -6.828705e-02
4.871059e-02 6.503951e-02 -6.997954e-02
5.324028e-02 4.478278e-02 -6.237721e-02
5.390411e-02 3.945505e-02 -6.729339e-02
5.339535e-02 4.959984e-02 -7.109701e-02
5.420820e-02 4.350816e-02 -7.454119e-02
5.169394e-02 5.368164e-02 -7.977509e-02
5.363549e-02 4.615537e-02 -7.961715e-02
4.871067e-02 5.734477e-02 -8.518732e-02
-4.643600e-02 1.284382e-01 -6.253474e-02
-4.411893e-02 1.373485e-01 -8.079842e-02
-4.442260e-02 1.419420e-01 -8.803308e-02
-4.288671e-02 1.342283e-01 -6.422150e-02
-4.168961e-02 1.373551e-01 -6.995037e-02
-3.010243e-02 1.395886e-01 -5.639994e-02
-3.071372e-02 1.444883e-01 -6.638368e-02
-1.050327e-02 1.169757e-01 -6.699359e-02
-8.463357e-03 1.236777e-01 -7.939664e-02
-4.105354e-02 1.398164e-01 -8.031807e-02
-3.859492e-02 1.450960e-01 -8.853078e-02
-3.418518e-02 1.456515e-01 -9.239372e-02
-2.941290e-02 1.472402e-01 -7.697034e-02
-3.154031e-02 1.471647e-01 -8.413801e-02
-2.640944e-02 1.468136e-01 -8.853864e-02
-1.180988e-02 1.267925e-01 -8.635831e-02
-1.736890e-02 1.420141e-01 -9.339423e-02
-1.220150e-02 1.324462e-01 -9.487047e-02
-1.385163e-02 9.898343e-02 -9.166810e-02
-6.260883e-03 9.198545e-02 -9.308467e-02
-2.925327e-04 8.664989e-02 -9.641464e-02
-2.373198e-02 1.074881e-01 -1.083867e-01
-2.282964e-02 1.035553e-01 -1.134766e-01
-1.893109e-02 1.087505e-01 -9.844671e-02
-1.565900e-02 1.053862e-01 -9.382997e-02
-2.159092e-02 1.126172e-01 -1.064462e-01
-2.176754e-02 9.718005e-02 -1.194471e-01
-8.763267e-03 1.062045e-01 -7.878179e-02
-5.453213e-03 1.026779e-01 -8.081475e-02
-9.439679e-03 1.093974e-01 -8.516189e-02
-8.846863e-03 1.022889e-01 -8.625256e-02
-7.451883e-03 1.107150e-01 -7.233710e-02
-1.751387e-03 1.024289e-01 -7.552015e-02
-7.629022e-03 1.163829e-01 -8.070144e-02
1.347623e-03 9.545172e-02 -8.476823e-02
6.315446e-03 9.149790e-02 -8.751843e-02
-2.741915e-03 9.453483e-02 -8.887294e-02
5.573776e-03 8.834997e-02 -9.300736e-02
4.626936e-03 9.594790e-02 -7.904408e-02
1.322580e-02 9.094028e-02 -8.258053e-02
1.223128e-02 8.903741e-02 -9.044701e-02
-1.335230e-02 1.149558e-01 -9.308778e-02
-1.313007e-02 1.073572e-01 -9.203151e-02
-1.470186e-02 1.219848e-01 -1.008746e-01
-1.084164e-02 1.201253e-01 -8.860560e-02
-1.261900e-02 1.254588e-01 -9.780480e-02
-4.277132e-02 1.429373e-01 -9.547239e-02
-3.121947e-02 1.185045e-01 -1.148604e-01
-2.857494e-02 1.189399e-01 -1.125043e-01
-3.975921e-02 1.438379e-01 -9.501414e-02
-3.301418e-02 1.430861e-01 -9.698629e-02
-2.647763e-02 1.442427e-01 -9.505946e-02
-2.553574e-02 1.386260e-01 -1.013662e-01
-1.935251e-02 1.320766e-01 -1.046106e-01
-2.074938e-02 1.407192e-01 -9.750435e-02
-1.499622e-02 1.343188e-01 -1.009463e-01
-2.624387e-02 1.151544e-01 -1.181108e-01
-2.195539e-02 1.065438e-01 -1.204292e-01
-2.787173e-02 1.143820e-01 -1.246859e-01
-2.353733e-02 1.097246e-01 -1.298111e-01
-2.433006e-02 1.154106e-01 -1.130519e-01
-1.885322e-02 9.892911e-02 -1.250811e-01
-2.176292e-02 1.060942e-01 -1.351449e-01
-2.295259e-02 1.081807e-01 -1.370122e-01
-2.198816e-02 1.071693e-01 -1.375590e-01
-1.506805e-02 1.261564e-01 -1.054176e-01
-1.332834e-02 1.283470e-01 -1.034396e-01
-2.493425e-02 1.416258e-01 -5.665565e-02
-1.783504e-02 1.384780e-01 -5.689718e-02
-2.482412e-02 1.456899e-01 -6.397194e-02
-1.865658e-02 1.453428e-01 -6.394492e-02
-1.247703e-02 1.385588e-01 -5.962720e-02
-1.324947e-02 1.446467e-01 -6.576687e-02
-9.988968e-03 1.296299e-01 -5.781389e-02
-7.465596e-03 1.242872e-01 -6.632529e-02
-7.467677e-03 1.360576e-01 -7.337961e-02
-7.354951e-03 1.274749e-01 -7.388651e-02
-7.505274e-03 1.347097e-01 -6.055925e-02
-4.602386e-03 1.307870e-01 -6.454262e-02
-7.612357e-03 1.391234e-01 -6.784501e-02
-4.828071e-03 1.326633e-01 -6.778204e-02
-2.555036e-02 1.477197e-01 -7.306494e-02
-1.846628e-02 1.480715e-01 -7.581638e-02
-1.988875e-02 1.474101e-01 -8.360745e-02
-1.314134e-02 1.467804e-01 -7.229972e-02
-1.024489e-02 1.408261e-01 -7.956736e-02
-1.050754e-02 1.333769e-01 -8.205793e-02
-1.386928e-02 1.426686e-01 -8.748808e-02
-1.154936e-02 1.367782e-01 -8.901333e-02
-9.943816e-03 1.434238e-01 -7.410297e-02
1.973976e-02 8.872484e-02 -7.867944e-02
6.681995e-03 8.259453e-02 -1.014916e-01
1.525923e-02 7.250130e-02 -1.097966e-01
1.998725e-02 6.941533e-02 -1.110869e-01
2.684985e-02 6.241430e-02 -1.117262e-01
1.308470e-02 8.460970e-02 -9.842866e-02
2.037957e-02 7.892063e-02 -1.032624e-01
2.111321e-02 8.692675e-02 -8.667365e-02
2.849483e-02 8.112848e-02 -9.116662e-02
1.828124e-02 8.604394e-02 -9.360013e-02
2.497406e-02 8.070677e-02 -9.737852e-02
3.869594e-02 6.100273e-02 -1.045550e-01
2.642465e-02 7.210916e-02 -1.068022e-01
3.299243e-02 6.391290e-02 -1.074781e-01
3.515413e-02 7.292212e-02 -9.357273e-02
3.989367e-02 6.513712e-02 -9.685700e-02
3.123767e-02 7.392567e-02 -1.008414e-01
3.541185e-02 6.715764e-02 -1.030334e-01
3.935511e-02 4.192340e-02 -1.046332e-01
3.236100e-02 5.182663e-02 -1.107219e-01
4.075175e-02 5.366076e-02 -1.043267e-01
4.274143e-02 4.684492e-02 -1.028482e-01
3.586355e-02 5.736103e-02 -1.081848e-01
4.326741e-02 5.716477e-02 -9.922300e-02
2.476581e-02 8.553968e-02 -8.192935e-02
3.097485e-02 8.030984e-02 -8.573479e-02
3.534297e-02 7.493133e-02 -8.778397e-02
