# .PCD v.5 - Point Cloud Data file format
VERSION .5
FIELDS x y z
SIZE 4 4 4
TYPE F F F
COUNT 1 1 1
WIDTH 100
HEIGHT 1
POINTS 100
DATA ascii
-2.0074476751765014 2.5455212758172063 -1.260393475921724
-8.504274222739623 3.1324668682841015 1.873770177149364
-4.620345875169276 4.737597550400485 4.305032038933323
4.478906867258958 4.75547241572678 -6.07650943381536
-1.6499879580868928 -7.9107826725178665 -7.920876939305446
-3.4503714371750682 8.409759131470977 -0.18516117874861493
6.420183816579957 7.743559596806961 -0.8166950501455652
-4.136135898470887 -1.1422912786109443 5.461418624386445
-2.0499305308620297 -0.4538444235470429 -8.61073242288343
8.412507775597547 4.665244238610535 -2.0353240713473353
0.28238622328123597 1.8239055687111438 6.146092064965622
-0.34135071261348315 -7.082565870461184 6.18393318556673
9.654207396189229 0.9917276354372095 2.9057832255343286
0.7221952150012321 2.0329349305492386 -7.131859738814801
8.089428778947774 4.725009196251264 5.95904968413957
-2.650334404927488 6.81390588530018 6.202424226828921
-6.551334369312594 0.45013523209455286 0.84733519002131
-3.0304629220342516 -0.6360421606224911 -1.0028997270382654
5.312241977563655 -4.425268251887573 6.115129691394927
-2.369961955443207 -4.107492226145926 -9.420373014370798
0.5808133949471994 -0.30955318312407165 -5.458760845710309
-0.8244652733499436 0.10854674682715526 5.886760347350112
-0.24249025739228713 -8.403542900203638 6.447066609385686
0.611379754037662 -1.5913027621233766 1.944619310910154
8.511739072510402 -8.456160055156353 9.877898705818694
4.467387986513604 -4.431583881089534 -8.570025152079053
4.22856304020209 -8.643184404798575 -9.236107629498026
-0.10152960041996728 -1.7327973372604752 -7.411012144251972
-3.302831376966524 3.092548428658638 0.3891121488257845
3.345095009991578 8.883948024477416 -3.4884237475192226
-4.3001200807786555 7.081467518910287 3.395119245568768
9.537271370724927 2.026874503029955 -4.639598955442765
4.625624179318448 8.893075124265604 -5.744363101218628
-0.32163683039836855 5.5636848013776685 -7.26251691698351
-5.095353471305724 3.9664976208861766 5.000982992409938
2.865972131598543 -0.8621858027266569 -5.639789331831304
4.3121050673843175 0.8182025936264914 -2.1770683544034197
-0.7227048939750169 4.145020615090914 0.3618437709657485
-8.228070372659108 -1.1853966247473746 5.527990339544475
-3.867292474666959 1.1276198069029153 -9.515147747953229
-9.100741112168485 -9.322276067880416 -2.184313767210666
8.119844303349964 3.3448223137193978 -2.2483916764364187
2.1038301570513696 1.7900596487917966 -6.953820782009639
-9.805787332290961 -8.560428107848693 -4.062830545600535
0.39875474326744964 -1.4616211905875645 1.0889611172055425
-5.2749780123027845 -2.091825411648065 -5.468708544377079
0.5419727585972502 -6.4677510983196385 6.498137646880693
2.819889430071548 5.5882613425831895 3.581318392274637
7.665458994989493 2.494821102820728 5.877732548877219
-4.687702439974157 9.607082477133673 -7.597978937209402
4.581085135203464 7.45964880473041 -3.018190297106158
-8.145054414919365 -6.837722299616349 3.9004339106215156
-7.085648208334834 -3.6581116398113966 3.635620725460651
2.8939637046513322 -0.5050171721475714 -5.892606004465812
-4.984331008406904 -4.99433468376397 -2.2601666749627203
8.835775424757138 9.955624168730495 -9.087579195827056
4.0667992904912165 1.3829783914896367 4.857646483585976
1.8131702455602259 0.3433529799033419 -7.374388698519887
6.467245735441214 6.000102158327451 -6.47501182668325
-2.836964777810418 4.680664067595011 5.562421615354808
8.175438318585346 6.310701363882991 -8.687526800820953
5.244369536337906 -0.1080020009966951 7.293573328245678
6.334506150495351 1.2906041442498442 5.488790346441622
-1.232232684316564 9.86192293698948 -7.908159300878768
0.7890806989185393 -9.647725630884656 -0.656740730181685
-3.2682749140410294 1.3729755597748383 -7.863633959773124
4.140735266651028 4.3934609591094755 -2.3860825944057895
-8.918216632970957 -9.172410012890865 7.512404689613138
-3.6663467094665148 -2.1652058749194802 4.542247201280167
-1.5648085849163706 2.050595990273516 -0.6276714225424218
9.074158910010695 -4.532657208249962 -5.241314049770218
7.464701296932127 2.3232614886994654 -9.540211485508223
0.5908206087113932 -1.1265731984687086 -2.8898366072599524
-1.7439001497622009 -2.7623118642284394 4.960190155123577
0.2846917555656283 -0.03438410035768413 8.953929084526393
-7.3327787295833335 -0.8587750257606288 -3.6156534533771545
-5.037271722830892 -9.490138509012528 7.887534778225792
-0.4374799869607173 6.642106283370207 -0.5963186244841943
6.1505398516375855 1.8289545323444258 -8.076137886847508
8.143270983804868 5.656943851612123 6.505226968700022
-8.149926545934228 -1.6122110214392915 0.3978800204894828
-3.1222115504136516 1.7771276322170806 -9.630475546697816
6.585083662643093 -5.235085673153814 6.132786635142406
-7.115304857191904 2.306872523191469 -3.6342670762363127
-1.116486217032083 1.744035991016478 -4.82025945867711
9.72075500011448 5.02474187354164 -2.571779758100341
-4.584160204138894 9.848153333012636 7.939496924974961
-8.318910466810436 -8.379233138615309 -6.720258810037891
-0.6886260731517346 3.3947705258959147 -4.34583526091866
4.774979038147361 4.3025642850229815 1.991123142088922
8.814890074811647 2.7456803112406014 -1.4046281766486146
8.064194117650516 1.165771557201154 3.859016529233532
2.2580877266015964 7.360126857813036 4.655666288651052
-3.6439962221836453 -3.579533762455527 -4.24658467232744
-8.58060112567669 -6.572262193660148 -4.448632013311329
-9.45815226059343 -1.2413377874513678 8.871404002349955
-2.661707731897689 -3.139383832921201 -0.8253014151199913
-2.211942066769157 -6.502961572137247 7.3958505855418935
-2.503307632980376 6.50279360254137 3.906000230567175
9.593073353528414 -8.423923560407856 -6.553538413872464